0.786331	7.227919	2.781890
5.068332	-1.604169	21.504591
3.020811	-4.008631	18.153539
-5.613232	1.409810	10.820569
2.747120	-8.238882	16.756475
6.190163	1.333743	0.746986
1.497286	-7.448714	16.399480
-6.577532	6.004586	8.076355
-9.121802	2.179007	8.588738
0.807890	5.345751	3.508259
5.688044	-4.707684	19.874081
7.653330	-3.410088	20.949457
0.732162	8.136221	4.105715
-5.145983	4.038641	8.949939
4.367212	6.105422	3.314974
3.529702	-6.103645	19.572644
8.036167	5.774798	1.540444
4.374199	-3.848526	19.474929
-7.036026	5.225546	7.730007
7.794993	5.210223	0.929642
6.808608	-4.749753	22.422901
5.608888	0.248065	23.458176
8.227452	-5.398283	21.949740
1.545814	7.064731	4.551305
-9.250617	-0.390840	9.573909
-1.860676	4.791922	6.137029
-2.344106	7.793271	6.432367
7.203404	-3.721423	20.392097
0.404921	8.075981	2.974723
-8.959007	1.543929	8.411444
7.354117	6.591494	1.907143
8.385801	5.391515	1.656819
4.550003	-3.280311	21.935421
-1.793465	7.650792	3.885729
2.010949	-6.590350	19.372782
7.508506	-1.869807	22.822159
-1.676623	-4.851529	16.065049
0.676655	-9.706401	16.951980
-9.864396	-1.458153	11.984205
3.450912	-4.464315	17.543071
7.813518	-3.064885	21.533097
2.706746	5.343510	2.082680
1.086006	-6.913183	19.247465
-7.055876	-3.506062	12.568686
-5.203666	1.813350	10.781029
-6.253434	-0.352177	9.741016
-3.666948	8.921107	5.721743
7.686154	3.546050	1.521896
5.258701	6.981472	3.227544
-7.668737	-6.182105	15.107393
-1.922511	-6.162015	14.489996
3.905712	7.921533	4.155164
-6.882934	-4.633690	12.067557
4.826507	3.435335	23.877319
4.833957	2.980796	2.191043
-8.364560	2.265127	8.828775
-1.575170	-5.017719	16.139486
-6.651570	-7.342110	12.099312
-0.130187	-5.140514	14.808291
-5.180533	-7.420392	16.044360
-5.022984	-1.955706	12.641441
3.766529	8.208974	1.537830
-8.409651	1.831565	10.758771
3.785202	8.112347	2.502102
-3.207654	-6.615281	13.861427
-5.305248	-4.797711	14.584617
-1.692271	-8.510251	17.199249
1.276726	8.503260	5.173386
0.900239	5.100884	2.159975
1.689491	-5.070426	17.937650
5.580678	-3.989237	19.252880
5.516385	1.903130	0.014121
0.853094	-6.336367	18.205373
-5.114705	1.600291	11.024554
6.404681	-2.240619	21.657179
-2.418995	-5.305989	16.554227
-4.772854	5.125366	6.192599
9.132141	1.403810	0.136386
7.920053	-3.349063	20.175488
-5.923374	2.652433	9.273003
-3.065685	-4.059280	12.563298
-0.417601	-5.635973	15.202478
5.188432	-5.571261	17.786982
3.305493	7.886284	4.173863
-5.342037	1.834631	8.280798
1.913339	5.475225	1.522606
-9.050694	-0.403271	11.260950
-6.667201	2.815862	7.958122
-0.752654	-8.758659	15.852831
7.671565	0.084703	23.171250
8.010374	-0.321381	24.536467
2.874033	-6.072273	20.362089
-7.425638	-5.075311	13.066487
-7.331243	1.520874	9.677204
-2.673079	-6.052793	15.721451
0.369686	-5.140013	17.152460
-1.237737	8.981626	5.235376
0.659433	5.752546	4.176757
0.785702	-9.231067	17.126979
-5.707974	-5.876685	12.212618
-6.028795	-0.290837	10.360231
1.201242	-7.368962	17.438000
5.373177	-2.306757	21.342822
7.334999	6.526654	24.856022
-3.605040	3.957998	5.432188
-4.888512	-7.605804	15.193238
-7.497412	2.781495	9.814749
9.359019	1.452391	24.463075
-1.405277	-9.418505	16.549739
-3.451560	4.202697	6.941664
1.244119	-8.139792	16.727548
5.461514	-7.724523	19.505438
4.093805	-6.683013	20.672305
-7.723724	-6.254043	11.687694
-4.864597	4.545864	7.635196
6.134691	-0.045076	22.472591
-6.021352	3.153595	7.702483
6.903500	-5.942438	22.072433
-1.361492	8.197798	5.969039
-3.726325	4.178904	8.986530
9.109379	3.932295	22.966013
6.885765	4.686814	23.432663
-5.732280	-4.430286	11.255013
8.605587	-0.323428	23.466311
-0.334225	-6.475855	17.320860
-3.446685	-6.804759	15.952728
7.377586	-5.694949	19.576988
-1.464287	9.404433	5.479533
-4.353660	2.626006	10.079468
7.640140	-4.222349	22.271496
9.019206	1.272485	23.814621
-7.991517	-3.522776	13.839929
7.368501	-4.552071	21.124876
8.695241	0.476602	23.203360
5.490885	1.118819	23.672015
-8.797162	1.472817	9.519553
-4.264152	-2.822920	13.646784
-3.755500	-4.413653	14.591411
-3.457990	6.072886	4.979800
4.722750	3.963025	24.024314
-8.744107	-2.942647	10.168579
-8.805182	3.190271	9.876768
2.773802	-7.406549	17.995481
-4.801066	8.553187	6.258005
9.294291	-3.528221	21.674037
-1.446819	-8.558153	17.952851
-7.398400	2.676205	7.509084
-5.571408	-7.052816	12.701420
-0.355300	-5.049822	15.291745
6.782932	-3.253721	19.302028
8.252184	3.418318	22.676491
6.685009	1.934016	24.800093
-4.694946	-2.317937	11.020793
-0.547884	-9.573026	18.174875
-5.178755	-5.573668	12.596674
8.065634	3.158557	0.942113
-2.088503	-9.594991	16.843417
0.611346	9.102883	3.157862
1.793340	-8.200906	16.965916
-0.460864	-7.975303	17.811885
6.176600	0.054924	23.577325
5.526608	3.598124	23.562324
7.246507	1.848888	23.365795
-5.320833	-3.235030	14.150493
7.973713	2.219301	22.667238
4.946350	-6.134550	19.963761
3.177978	-8.875571	17.035574
-5.889639	-7.975242	16.208850
0.570538	8.926325	4.193313
8.160357	-1.964911	22.999223
2.957536	-6.256959	18.141477
-9.787667	-0.083323	11.399787
-0.188398	6.920674	5.930451
-6.205001	5.335474	8.488472
0.816935	6.897514	2.414696
-6.667108	-5.832196	14.780685
4.861381	4.679080	1.423572
-4.450581	-7.958503	13.461414
5.455938	-4.887788	21.097466
-1.810438	5.434996	6.834007
-1.552963	9.730789	6.240699
-7.962940	0.506355	9.265252
8.986257	-0.137613	20.960662
-3.836240	-7.215127	16.535238
1.307872	6.858855	1.993352
-6.664591	7.349242	6.401592
-7.456646	-0.777393	12.140885
5.818783	1.114737	22.914084
4.026601	-7.408688	17.173248
-8.025246	5.562247	8.101688
6.244752	-7.356752	18.157430
-4.733989	7.535084	6.316771
4.031941	-6.294535	18.960979
-1.037247	5.974258	3.802616
5.148091	-1.365087	22.392235
-7.653677	3.541836	9.991250
2.379316	-8.388477	16.847040
5.923603	-0.909792	23.409427
6.593386	-1.406321	21.236773
6.144836	6.019028	0.115340
3.784823	-3.518882	20.265386
0.355582	-9.881920	16.054454
6.257404	-6.192105	19.960131
-8.714880	-2.697643	11.071337
-2.838155	4.950020	7.003840
3.939533	-4.883207	20.185652
-1.886442	-9.549084	14.334179
8.917513	4.219468	1.624827
4.112623	-5.933000	20.460106
0.248962	5.199105	5.752138
-6.219007	-3.581692	11.767130
-5.326701	2.650985	9.479487
2.108663	-5.106720	20.125956
-5.232704	5.864081	5.402860
-0.872556	-4.995323	15.677226
-1.559266	7.937430	6.355848
1.211117	9.837883	2.545539
-5.844842	3.471681	7.982290
0.988755	-5.566039	16.841001
3.719768	7.534710	0.935946
2.110504	9.460628	3.655821
-3.478312	-8.413665	16.477908
-8.929967	-1.774754	10.436473
-4.356600	-5.689863	15.313983
-3.489939	7.745256	4.859300
-5.934894	-0.478691	11.763794
-8.646731	-0.373378	9.738386
5.884904	-3.708561	19.453941
-6.815798	4.619085	8.857943
5.995943	6.525176	1.834655
9.545623	-2.665007	23.424234
8.908442	-0.951097	21.659853
-5.913801	-6.473763	13.239559
-4.877250	2.448506	9.541520
7.839791	-3.878881	22.367114
6.930941	1.077973	23.183137
2.651867	5.574306	3.480605
4.173674	-7.930861	17.416812
0.303016	-9.368504	18.242415
1.475656	6.361845	2.718714
1.208931	7.667148	4.212840
-1.877827	-6.637381	17.582689
7.905362	-0.828431	24.260981
4.205175	5.163246	1.357738
-7.620079	2.010746	8.521170
-3.119790	4.343123	6.610048
7.253347	0.674289	23.760508
-5.588116	5.643718	7.434958
-6.887541	6.593811	8.746948
5.069098	-7.678221	19.730028
7.556417	-2.197318	20.883247
-7.746997	2.816041	9.064846
6.123623	5.021357	1.551156
-9.314314	-2.438743	12.779610
4.906474	-3.875877	20.937534
6.125867	4.336109	0.568236
-5.840040	5.554923	6.365849
-6.047415	1.934059	8.411089
6.865447	-6.323034	18.261002
6.549347	5.039468	2.444922
-5.365815	1.230014	9.762244
5.104436	0.076820	21.105619
8.075036	2.762588	0.995215
5.063654	-6.645063	18.977365
6.491274	6.266151	24.535400
6.017736	5.937132	24.421259
7.077268	2.281301	23.600311
-1.659560	-5.416379	15.555090
-5.561972	5.380148	5.933797
-0.247973	-5.912939	16.673089
1.561599	6.118434	4.826913
-8.328469	-3.356997	13.761101
5.431856	-3.512640	19.733501
6.483412	5.342809	24.420133
9.517814	-2.951953	20.977415
-6.868434	-2.019378	11.688965
3.145783	-7.611843	16.634451
-2.660746	5.563935	4.924947
-3.272925	7.207413	5.320208
6.687256	3.510013	1.777155
9.119965	1.871772	23.988783
5.730711	0.665886	21.487137
-1.875066	7.411007	4.047176
0.815349	-7.770029	16.229158
-9.302142	-1.828678	13.036009
3.122323	-5.037277	20.646994
-6.611426	7.059945	5.922532
-7.247413	-1.144745	9.743207
-0.582015	-6.010972	14.429589
-5.077724	-6.876995	14.601959
-1.948741	7.662765	3.837229
-2.052415	7.329120	6.809071
3.437514	-5.418763	17.116087
9.392863	2.672028	0.211676
7.333584	6.522428	0.354108
-0.366171	6.951361	4.850319
4.803976	3.938503	0.977420
-1.305259	6.864847	3.286027
-6.162926	4.404835	6.838072
3.063815	3.951668	0.639451
-3.504547	4.745377	7.899354
6.413586	-2.113003	21.327590
-1.097596	-6.346528	16.979732
4.966256	6.701669	1.963242
7.111422	4.981790	0.945194
0.040144	-9.212554	15.177239
3.113599	9.043673	1.588572
5.302438	0.578553	22.166624
7.481361	1.782547	24.682093
-2.713043	5.638535	7.660477
6.653281	-3.092678	22.201138
5.401356	2.425448	24.044202
-0.105663	9.571577	3.523744
5.623774	3.572637	23.503698
8.695754	1.073443	24.300794
5.012054	-7.189678	20.000812
6.984349	1.366070	0.104069
7.078590	-3.196337	20.048774
6.435739	-3.084484	19.678428
6.441992	-5.998857	18.458497
2.101771	6.880261	4.706862
-6.632715	6.709533	8.073567
6.879759	5.981614	1.506206
-0.348688	8.401236	5.376931
0.414260	7.806208	2.188739
-3.920495	5.799977	5.757616
-6.286898	-1.422575	11.045871
-6.163836	-5.136843	14.883833
8.750191	-3.904351	21.995068
-4.706775	8.202607	7.140058
-5.525953	2.628798	10.014637
6.856344	-6.600182	18.561852
8.894725	4.413255	22.919430
8.651820	0.410222	22.706249
-5.607326	-6.854192	12.301687
7.120787	1.433878	22.687229
-8.782007	1.035496	9.998157
-7.246328	5.677620	9.723852
4.719458	-7.768426	19.170722
1.655616	-8.954733	18.378260
-5.680614	4.029284	7.743200
-1.441685	-9.591176	15.791274
-0.246149	-8.705655	15.544126
-6.721192	1.958383	9.203986
3.256600	8.810471	2.263538
3.376206	3.705291	2.999274
-4.003066	-7.895978	16.426596
-3.023672	5.692078	6.864601
-8.597716	-3.275329	12.566239
3.073859	-6.727212	20.381781
-2.359571	8.549274	6.233102
-9.712995	0.621165	8.647141
-0.172017	7.548110	3.788888
-2.796390	-5.502696	15.281693
-8.764180	3.452903	10.479960
-1.235977	-6.095757	15.085827
2.234742	-6.188707	19.969666
1.135349	-9.060185	15.926365
-7.431401	1.155719	10.338790
5.055899	4.001866	24.071841
5.983715	-0.925929	24.341574
-4.082411	3.381498	8.343362
3.421922	-9.229929	18.574582
-6.120432	7.207708	8.170678
-1.801428	-5.788156	16.901751
-7.555452	-2.116802	11.799338
-5.651538	2.898012	9.653320
7.499396	5.147092	0.628634
5.553294	2.146306	1.154158
1.564980	-5.409284	15.942485
6.839732	-4.097350	19.205738
9.099538	-2.468238	20.227571
-5.074381	6.833159	7.231052
3.861832	-8.261685	19.978441
0.394581	-9.078798	15.661946
2.397384	9.222419	2.280612
0.166674	6.086943	5.752889
4.849183	5.203151	3.185902
3.677750	9.087209	2.839524
-5.617567	-4.152730	14.125229
5.238466	0.130954	21.377116
-2.757025	8.722333	7.000605
7.592612	-5.503519	22.223801
3.949811	-4.081008	18.467377
1.802117	4.991303	2.355183
-0.490205	-9.592113	16.793643
-7.755673	2.234564	9.720019
-6.204024	0.407076	10.476965
6.389220	-4.806196	20.728957
-1.181945	-9.608954	15.357858
-5.301828	-4.528918	13.049501
5.660502	5.443821	0.144509
1.875818	-6.977055	18.934944
5.915349	-5.942968	17.937589
3.887962	-6.568676	19.825760
-5.116582	3.103524	9.774517
6.505925	0.438221	23.150850
-6.869743	3.193963	10.322584
0.413114	-8.086200	15.396473
6.561482	4.088280	0.384172
-5.237070	3.317055	9.585716
-5.852568	-6.467511	13.037099
-2.551301	-4.769381	15.324270
2.595537	7.974803	4.386543
-1.330917	8.008548	5.173554
6.718045	-5.351379	21.339471
-5.452447	2.476341	8.461974
-7.159641	-0.037560	10.369025
0.681105	-6.185261	18.462443
-8.036893	0.523592	10.080221
-6.084706	1.811109	10.804479
9.818590	0.580072	23.725152
-5.636133	-0.275503	8.816683
6.799534	-6.188815	19.636300
1.569588	-5.547368	16.516923
8.712189	1.656016	23.987511
6.305428	5.104219	0.165280
-0.609437	9.408296	3.267187
5.752335	-5.911501	18.244332
3.176370	-6.883377	17.558401
-0.075804	6.719588	3.672467
3.131162	5.289031	2.478726
-7.314158	-2.986903	10.704587
5.977167	7.133210	1.361696
5.392550	-6.891491	17.443032
8.581371	-2.326584	21.891218
1.873053	5.882760	3.196777
-3.613527	6.895932	5.318433
-8.325663	-3.005578	11.068465
-4.467192	-7.274735	14.748134
-8.477991	3.210091	10.371205
-3.259578	5.030476	4.565884
3.024610	8.601664	2.599632
5.417831	3.457306	0.693019
-9.185501	1.923832	9.426608
-5.714951	4.062799	6.788896
5.584399	2.401197	0.148540
9.649077	-1.793404	20.473409
5.916136	-0.213653	23.584290
-0.704076	8.011236	6.401716
-9.603957	-2.258423	13.259826
3.213593	4.229688	3.159627
6.899617	-0.969174	23.153349
7.105221	4.477459	0.190345
7.226485	2.590886	24.093658
4.729319	5.303735	2.062211
-9.305700	3.641793	7.752942
-8.191045	4.550641	8.647835
-5.468836	1.541148	8.215379
4.097042	8.374041	1.603443
0.920528	-6.242867	18.196582
4.813489	5.422426	0.003853
7.504383	4.985179	2.241962
-8.890039	2.953111	7.738859
-3.745352	6.531931	6.361541
5.655595	-4.798212	21.949568
4.216082	-3.863246	18.945083
0.031629	-7.802034	17.856938
7.053124	-4.146773	22.049337
0.437619	5.098505	2.232850
-9.384956	-3.274899	11.362457
3.998937	-4.933593	20.381215
-9.047159	3.767654	10.024422
-4.602511	-5.111683	14.326710
4.961660	-8.165197	19.442364
5.031570	5.661004	2.448599
-2.351164	7.384845	6.982734
4.129869	7.687836	1.418774
5.857893	5.218163	1.906405
-9.851449	1.433799	8.000687
6.193346	-0.893221	23.436925
-9.366927	0.555635	10.041409
-1.444815	9.601297	4.084870
-0.672866	7.770050	6.102135
3.449635	4.663305	24.849713
-7.847908	-1.311114	12.465836
9.036832	2.730858	24.960883
3.533284	-9.255375	18.043834
-8.329190	3.873737	10.594121
-5.695230	-7.923889	14.347013
6.273521	-2.815209	20.521390
3.708942	-6.959976	16.763539
2.724691	5.861775	1.572462
-5.678021	-6.143767	15.239023
-5.687738	1.236255	8.773045
-1.682696	7.254377	4.380229
2.969943	5.837293	2.090115
-7.312987	0.193598	9.786442
-4.863741	-2.161072	12.826525
-0.455808	-6.492848	16.719225
2.833750	7.593031	3.810124
-8.255342	5.315795	8.860119
-6.485228	-0.034471	12.069575
5.563627	-0.955514	21.019730
9.654059	-1.759803	24.155439
-3.315801	-5.192500	15.829084
-4.945829	2.779128	7.632819
6.547371	-5.734858	21.637676
-6.799078	2.516859	7.205230
6.966842	-2.137216	21.387240